ply
format ascii 1.0
comment pointcloud saved from Realsense Viewer
element vertex 2349
property float32 x
property float32 y
property float32 z
property uchar red
property uchar green
property uchar blue
end_header
132 138 138 
-0.0199585 0.174072 -0.68457 
138 144 144 
-0.0163727 0.173828 -0.683594 
132 138 138 
-0.0127945 0.173462 -0.682617 
138 144 144 
-0.00920868 0.172974 -0.680176 
136 142 142 
-0.00564194 0.172485 -0.678223 
138 144 144 
-0.00209808 0.171997 -0.67627 
125 131 131 
0.00142097 0.171265 -0.67334 
85 64 51 
0.00491714 0.170654 -0.671387 
103 57 41 
0.00839233 0.170166 -0.669434 
96 55 38 
0.0118637 0.169922 -0.668457 
88 51 37 
0.0153275 0.169678 -0.66748 
98 56 42 
0.0187683 0.169434 -0.666504 
108 62 44 
0.0222168 0.169189 -0.665527 
94 57 41 
0.0256805 0.169189 -0.665527 
60 55 35 
0.0291595 0.169189 -0.665527 
80 51 41 
0.0326233 0.169189 -0.665527 
88 48 35 
0.0361023 0.169189 -0.665527 
128 94 72 
0.0395508 0.169189 -0.665527 
106 81 45 
0.0430298 0.169189 -0.665527 
133 104 63 
0.0464172 0.168945 -0.664551 
142 107 63 
0.0498962 0.168945 -0.664551 
142 110 65 
0.0532837 0.168701 -0.663574 
143 111 66 
0.0567322 0.168701 -0.663574 
138 108 62 
0.0601196 0.168457 -0.662109 
107 78 35 
0.0635376 0.168457 -0.662109 
116 72 40 
0.0670166 0.168457 -0.662109 
102 55 31 
0.0704346 0.168457 -0.662109 
102 55 33 
0.0739136 0.168457 -0.662109 
89 55 31 
0.0773315 0.168457 -0.662109 
44 54 29 
0.0808105 0.168457 -0.662109 
19 63 40 
0.0842896 0.168457 -0.662109 
19 63 40 
0.0877075 0.168457 -0.662109 
17 61 38 
0.0911865 0.168457 -0.662109 
16 60 37 
0.0946045 0.168457 -0.662109 
18 62 39 
0.0980835 0.168457 -0.662109 
32 66 42 
0.101562 0.168457 -0.662109 
120 57 32 
0.10498 0.168457 -0.662109 
125 65 34 
0.108643 0.168701 -0.663574 
116 46 30 
0.112061 0.168701 -0.663574 
97 52 59 
0.11554 0.168701 -0.663574 
116 61 88 
0.119019 0.168701 -0.663574 
107 57 74 
0.122437 0.168701 -0.663574 
157 146 150 
0.125854 0.168701 -0.663574 
132 146 152 
0.129395 0.168701 -0.663574 
130 148 155 
0.132812 0.168701 -0.663574 
132 149 154 
0.13623 0.168701 -0.663574 
49 73 61 
0.139771 0.168701 -0.663574 
24 58 36 
0.143188 0.168701 -0.663574 
13 64 36 
0.146606 0.168701 -0.663574 
12 63 35 
0.150146 0.168701 -0.663574 
13 64 36 
0.153564 0.168701 -0.663574 
14 65 39 
0.156982 0.168701 -0.663574 
71 110 97 
0.160767 0.168945 -0.664551 
34 70 52 
0.164185 0.168945 -0.664551 
15 63 41 
0.167847 0.169189 -0.665527 
12 62 39 
0.171387 0.169189 -0.665527 
17 66 37 
0.175049 0.169434 -0.666504 
16 61 29 
0.179077 0.169922 -0.668457 
12 63 35 
0.182861 0.170166 -0.669434 
12 63 37 
0.18689 0.170654 -0.671387 
28 69 47 
0.19104 0.171265 -0.67334 
132 145 142 
0.195068 0.171753 -0.675293 
137 148 146 
0.199219 0.172241 -0.677246 
137 145 146 
0.203369 0.172729 -0.679199 
135 141 141 
0.207153 0.172974 -0.680176 
140 146 146 
0.21106 0.173218 -0.681641 
145 153 152 
0.214966 0.173462 -0.682617 
135 143 142 
0.218506 0.173462 -0.682617 
140 143 142 
0.222046 0.173462 -0.682617 
150 153 152 
0.225952 0.173828 -0.683594 
146 152 152 
0.229492 0.173828 -0.683594 
147 153 153 
0.232666 0.173462 -0.682617 
142 148 148 
0.236328 0.173462 -0.682617 
137 140 141 
0.239868 0.173462 -0.682617 
143 146 147 
0.243408 0.173462 -0.682617 
139 145 145 
0.246948 0.173462 -0.682617 
142 145 144 
0.250488 0.173462 -0.682617 
147 153 153 
0.253906 0.173462 -0.682617 
149 155 157 
0.257568 0.173462 -0.682617 
149 155 155 
0.26123 0.173462 -0.682617 
148 154 154 
0.265137 0.173828 -0.683594 
141 144 147 
0.268555 0.173828 -0.683594 
142 145 148 
0.272217 0.173828 -0.683594 
141 144 145 
0.275879 0.173828 -0.683594 
140 140 144 
0.279297 0.173828 -0.683594 
142 142 144 
0.282959 0.173828 -0.683594 
149 152 153 
0.286865 0.174072 -0.68457 
142 145 146 
0.290527 0.174072 -0.68457 
150 150 152 
0.293945 0.174072 -0.68457 
149 152 153 
0.297607 0.174072 -0.68457 
149 152 153 
0.30127 0.174072 -0.68457 
148 154 156 
0.304688 0.174072 -0.68457 
143 149 151 
0.307861 0.173828 -0.683594 
144 147 150 
0.311523 0.173828 -0.683594 
152 155 156 
0.314453 0.173462 -0.682617 
145 148 149 
0.317627 0.173218 -0.681641 
140 139 141 
0.320557 0.172974 -0.680176 
55 49 53 
0.32373 0.172729 -0.679199 
27 33 35 
0.326416 0.172241 -0.677246 
25 33 34 
0.329346 0.171997 -0.67627 
24 32 33 
0.33252 0.171753 -0.675293 
21 29 30 
0.335938 0.171753 -0.675293 
21 29 30 
0.339355 0.171753 -0.675293 
22 30 31 
0.343506 0.171997 -0.67627 
22 30 31 
0.347412 0.172241 -0.677246 
22 30 31 
0.351562 0.172485 -0.678223 
22 30 31 
0.355713 0.172729 -0.679199 
22 30 31 
0.359619 0.172974 -0.680176 
22 30 31 
0.36377 0.173218 -0.681641 
22 30 31 
0.36792 0.173462 -0.682617 
22 30 31 
0.371338 0.173462 -0.682617 
22 30 31 
0.375 0.173462 -0.682617 
22 30 31 
0.378662 0.173462 -0.682617 
22 30 31 
0.381592 0.173218 -0.681641 
22 30 31 
0.38501 0.173218 -0.681641 
22 30 31 
0.388184 0.172974 -0.680176 
22 30 31 
0.391602 0.172974 -0.680176 
22 30 31 
0.395752 0.173218 -0.681641 
22 30 31 
0.399414 0.173218 -0.681641 
22 30 31 
0.402832 0.173218 -0.681641 
22 30 31 
0.406982 0.173462 -0.682617 
22 30 31 
0.410645 0.173462 -0.682617 
22 30 31 
0.414062 0.173462 -0.682617 
22 30 31 
0.417725 0.173462 -0.682617 
22 30 31 
0.421387 0.173462 -0.682617 
22 30 31 
0.424805 0.173462 -0.682617 
22 30 31 
0.428467 0.173462 -0.682617 
22 30 31 
0.431885 0.173462 -0.682617 
22 30 31 
0.435547 0.173462 -0.682617 
22 30 31 
0.438965 0.173462 -0.682617 
22 30 31 
0.442627 0.173462 -0.682617 
22 30 31 
0.446289 0.173462 -0.682617 
22 30 31 
0.449707 0.173462 -0.682617 
22 30 31 
0.453369 0.173462 -0.682617 
22 30 31 
0.456299 0.173218 -0.681641 
22 30 31 
0.459717 0.173218 -0.681641 
22 30 31 
0.463867 0.173462 -0.682617 
22 30 31 
0.467529 0.173462 -0.682617 
22 30 31 
0.471191 0.173462 -0.682617 
22 30 31 
0.474609 0.173462 -0.682617 
22 30 31 
0.479004 0.173828 -0.683594 
22 30 31 
0.482422 0.173828 -0.683594 
22 30 31 
0.486084 0.173828 -0.683594 
22 30 31 
0.489502 0.173828 -0.683594 
22 30 31 
0.493164 0.173828 -0.683594 
22 30 31 
0.496826 0.173828 -0.683594 
22 30 31 
0.5 0.173828 -0.683594 
22 30 31 
0.503906 0.173828 -0.683594 
22 30 31 
0.507324 0.173828 -0.683594 
22 30 31 
0.510742 0.173828 -0.683594 
22 30 31 
0.514648 0.173828 -0.683594 
22 30 31 
0.518066 0.173828 -0.683594 
22 30 31 
0.521484 0.173828 -0.683594 
22 30 31 
0.524902 0.173828 -0.683594 
22 30 31 
0.528809 0.173828 -0.683594 
22 30 31 
0.53125 0.173462 -0.682617 
22 30 31 
0.535156 0.173462 -0.682617 
22 30 31 
0.538574 0.173462 -0.682617 
22 30 31 
0.541992 0.173462 -0.682617 
22 30 31 
0.544922 0.173218 -0.681641 
22 30 31 
0.54834 0.173218 -0.681641 
22 30 31 
0.552246 0.173218 -0.681641 
22 30 31 
0.555664 0.173218 -0.681641 
22 30 31 
0.558105 0.172974 -0.680176 
22 30 31 
0.562012 0.172974 -0.680176 
22 30 31 
-0.366699 0.170654 -0.685547 
34 34 34 
-0.363525 0.171021 -0.686523 
65 55 55 
-0.360107 0.171021 -0.686523 
141 136 134 
-0.356445 0.171021 -0.686523 
163 155 154 
-0.352783 0.171021 -0.686523 
149 144 140 
-0.349365 0.171021 -0.686523 
152 144 141 
-0.345703 0.171021 -0.686523 
148 140 139 
-0.342041 0.171021 -0.686523 
155 150 148 
-0.338623 0.171021 -0.686523 
153 148 146 
-0.334961 0.171021 -0.686523 
157 152 150 
-0.331299 0.171021 -0.686523 
150 147 144 
-0.327881 0.171021 -0.686523 
145 142 139 
-0.324219 0.171021 -0.686523 
145 142 139 
-0.320557 0.171021 -0.686523 
154 149 147 
-0.317383 0.171265 -0.6875 
154 149 147 
-0.313965 0.171265 -0.6875 
157 152 148 
-0.310303 0.171265 -0.6875 
149 139 137 
-0.306641 0.171265 -0.6875 
154 144 142 
-0.303223 0.171265 -0.6875 
156 151 149 
-0.299561 0.171265 -0.6875 
154 151 148 
-0.295898 0.171265 -0.6875 
159 154 152 
-0.291992 0.171021 -0.686523 
159 154 152 
-0.28833 0.171021 -0.686523 
159 154 152 
-0.284912 0.171021 -0.686523 
159 154 152 
-0.280762 0.170654 -0.685547 
156 153 150 
-0.277344 0.170654 -0.685547 
153 150 147 
-0.273682 0.170654 -0.685547 
128 125 122 
-0.27002 0.170654 -0.685547 
154 148 150 
-0.266602 0.170654 -0.685547 
153 148 146 
-0.262939 0.170654 -0.685547 
155 150 148 
-0.259277 0.170654 -0.685547 
152 149 146 
-0.255859 0.170654 -0.685547 
146 143 140 
-0.252197 0.170654 -0.685547 
154 149 147 
-0.248657 0.170654 -0.685547 
153 150 147 
-0.245117 0.170654 -0.685547 
154 151 148 
-0.241211 0.17041 -0.68457 
153 150 147 
-0.237671 0.17041 -0.68457 
149 146 143 
-0.234131 0.17041 -0.68457 
149 146 143 
-0.230469 0.17041 -0.68457 
154 149 147 
-0.227295 0.170654 -0.685547 
145 142 139 
-0.223633 0.170654 -0.685547 
153 150 147 
-0.220093 0.170654 -0.685547 
155 152 149 
-0.216553 0.170654 -0.685547 
143 140 137 
-0.212646 0.17041 -0.68457 
155 151 152 
-0.209106 0.17041 -0.68457 
152 148 149 
-0.205566 0.17041 -0.68457 
150 146 147 
-0.201904 0.17041 -0.68457 
153 153 149 
-0.198364 0.17041 -0.68457 
153 153 149 
-0.194824 0.17041 -0.68457 
145 145 141 
-0.191284 0.17041 -0.68457 
146 146 140 
-0.187622 0.17041 -0.68457 
138 138 132 
-0.184082 0.17041 -0.68457 
145 145 141 
-0.180542 0.17041 -0.68457 
143 143 139 
-0.177002 0.17041 -0.68457 
148 148 144 
-0.17334 0.17041 -0.68457 
146 146 142 
-0.1698 0.17041 -0.68457 
148 148 144 
-0.166016 0.170166 -0.683594 
141 141 137 
-0.162476 0.170166 -0.683594 
147 147 143 
-0.158936 0.170166 -0.683594 
150 150 146 
-0.155273 0.170166 -0.683594 
144 144 140 
-0.151733 0.170166 -0.683594 
143 143 139 
-0.148193 0.170166 -0.683594 
144 144 140 
-0.144897 0.17041 -0.68457 
146 146 142 
-0.141235 0.17041 -0.68457 
132 132 128 
-0.137451 0.170166 -0.683594 
141 140 140 
-0.133911 0.170166 -0.683594 
143 143 143 
-0.130127 0.169922 -0.682617 
138 139 135 
-0.126587 0.169922 -0.682617 
131 131 125 
-0.123108 0.169922 -0.682617 
128 125 120 
-0.119507 0.169922 -0.682617 
138 135 130 
-0.115967 0.169922 -0.682617 
128 125 120 
-0.112427 0.169922 -0.682617 
137 137 133 
-0.109009 0.170166 -0.683594 
138 138 134 
-0.105469 0.170166 -0.683594 
135 135 135 
-0.102051 0.17041 -0.68457 
138 138 138 
-0.0984497 0.17041 -0.68457 
138 138 138 
-0.0949097 0.17041 -0.68457 
129 128 128 
-0.0913086 0.17041 -0.68457 
131 127 128 
-0.0877686 0.17041 -0.68457 
124 123 123 
-0.0841675 0.17041 -0.68457 
125 125 125 
-0.0806274 0.17041 -0.68457 
130 130 130 
-0.0770264 0.17041 -0.68457 
126 126 126 
-0.0734863 0.17041 -0.68457 
133 136 135 
-0.0698853 0.17041 -0.68457 
131 134 135 
-0.0663452 0.17041 -0.68457 
131 134 135 
-0.0627441 0.17041 -0.68457 
131 134 133 
-0.0592957 0.170654 -0.685547 
129 132 131 
-0.0557251 0.170654 -0.685547 
126 132 130 
-0.0521545 0.170654 -0.685547 
130 133 132 
-0.048584 0.170654 -0.685547 
122 125 124 
-0.0450134 0.170654 -0.685547 
127 130 129 
-0.0414429 0.170654 -0.685547 
131 137 135 
-0.0378723 0.170654 -0.685547 
132 138 136 
-0.0342407 0.17041 -0.68457 
131 134 135 
-0.0306702 0.17041 -0.68457 
133 136 137 
-0.0270996 0.17041 -0.68457 
130 133 134 
-0.0235291 0.17041 -0.68457 
128 131 130 
-0.0199585 0.17041 -0.68457 
135 138 139 
-0.0163727 0.170166 -0.683594 
126 129 130 
-0.0127716 0.169678 -0.681641 
135 141 141 
-0.00919342 0.169189 -0.679199 
133 139 139 
-0.00563431 0.168701 -0.677246 
133 139 139 
-0.00209618 0.168213 -0.675293 
97 98 92 
0.00141907 0.16748 -0.672363 
81 60 45 
0.00490952 0.166992 -0.67041 
100 50 29 
0.00837708 0.166504 -0.668457 
92 46 26 
0.0118256 0.166016 -0.666504 
84 42 28 
0.0152817 0.165649 -0.665527 
95 51 35 
0.0187225 0.165405 -0.664551 
104 53 35 
0.0221558 0.165161 -0.663574 
96 50 32 
0.0256042 0.165161 -0.663574 
83 42 25 
0.029068 0.165161 -0.663574 
88 46 34 
0.0325317 0.165161 -0.663574 
89 44 21 
0.0359802 0.165161 -0.663574 
139 103 64 
0.0394287 0.165161 -0.663574 
142 107 63 
0.0429077 0.165161 -0.663574 
139 104 58 
0.0463562 0.165161 -0.663574 
146 110 60 
0.0497437 0.164917 -0.662109 
144 110 61 
0.0531921 0.164917 -0.662109 
114 71 34 
0.0565796 0.164673 -0.661133 
141 106 62 
0.0600281 0.164673 -0.661133 
135 100 54 
0.0633545 0.164429 -0.660156 
138 101 56 
0.0667725 0.164429 -0.660156 
105 57 20 
0.0702515 0.164429 -0.660156 
100 51 21 
0.0736694 0.164429 -0.660156 
87 54 39 
0.0771484 0.164429 -0.660156 
43 51 52 
0.0805664 0.164429 -0.660156 
18 58 41 
0.0839844 0.164429 -0.660156 
56 93 72 
0.0874634 0.164429 -0.660156 
19 58 34 
0.0908813 0.164429 -0.660156 
13 57 32 
0.0944824 0.164673 -0.661133 
16 60 35 
0.0979614 0.164673 -0.661133 
31 64 38 
0.101379 0.164673 -0.661133 
132 73 37 
0.104858 0.164673 -0.661133 
137 79 38 
0.108276 0.164673 -0.661133 
121 58 37 
0.111755 0.164673 -0.661133 
93 48 53 
0.115173 0.164673 -0.661133 
116 54 79 
0.118469 0.164429 -0.660156 
117 52 70 
0.121887 0.164429 -0.660156 
166 131 143 
0.125366 0.164429 -0.660156 
129 141 143 
0.128784 0.164429 -0.660156 
85 99 103 
0.132202 0.164429 -0.660156 
136 150 156 
0.13562 0.164429 -0.660156 
134 147 158 
0.139282 0.164673 -0.661133 
130 146 156 
0.1427 0.164673 -0.661133 
104 127 123 
0.14624 0.164673 -0.661133 
12 63 37 
0.149658 0.164673 -0.661133 
13 64 38 
0.153076 0.164673 -0.661133 
13 64 38 
0.156738 0.164917 -0.662109 
69 113 98 
0.160278 0.164917 -0.662109 
26 64 45 
0.16394 0.165161 -0.663574 
15 63 41 
0.167358 0.165161 -0.663574 
9 62 38 
0.171143 0.165405 -0.664551 
10 64 35 
0.174805 0.165649 -0.665527 
11 62 32 
0.178833 0.16626 -0.66748 
11 62 32 
0.182617 0.166504 -0.668457 
12 63 35 
0.186646 0.166992 -0.67041 
23 69 43 
0.19104 0.167725 -0.67334 
135 146 142 
0.195068 0.168213 -0.675293 
140 148 149 
0.199219 0.168701 -0.677246 
139 147 148 
0.203003 0.168945 -0.678223 
138 146 145 
0.207153 0.169434 -0.680176 
133 141 140 
0.21106 0.169678 -0.681641 
136 142 142 
0.214966 0.169922 -0.682617 
135 138 137 
0.218506 0.169922 -0.682617 
138 144 142 
0.222412 0.170166 -0.683594 
140 146 144 
0.225952 0.170166 -0.683594 
144 147 146 
0.229492 0.170166 -0.683594 
148 154 154 
0.233032 0.170166 -0.683594 
149 155 155 
0.236328 0.169922 -0.682617 
148 154 154 
0.239868 0.169922 -0.682617 
142 148 150 
0.243408 0.169922 -0.682617 
134 140 140 
0.246948 0.169922 -0.682617 
142 145 146 
0.250488 0.169922 -0.682617 
146 146 148 
0.253906 0.169922 -0.682617 
149 152 155 
0.257568 0.169922 -0.682617 
147 153 155 
0.26123 0.169922 -0.682617 
149 155 155 
0.265137 0.170166 -0.683594 
148 151 152 
0.268555 0.170166 -0.683594 
149 152 155 
0.272217 0.170166 -0.683594 
149 152 155 
0.275879 0.170166 -0.683594 
148 151 154 
0.279297 0.170166 -0.683594 
140 143 146 
0.282959 0.170166 -0.683594 
145 148 149 
0.286377 0.170166 -0.683594 
131 134 135 
0.290527 0.17041 -0.68457 
151 151 153 
0.293945 0.17041 -0.68457 
143 146 147 
0.297607 0.17041 -0.68457 
149 149 151 
0.30127 0.17041 -0.68457 
150 153 156 
0.304199 0.170166 -0.683594 
142 145 148 
0.307861 0.170166 -0.683594 
151 151 155 
0.311523 0.170166 -0.683594 
152 155 158 
0.314453 0.169922 -0.682617 
144 147 148 
0.317627 0.169678 -0.681641 
134 133 137 
0.320557 0.169434 -0.680176 
55 49 53 
0.32373 0.169189 -0.679199 
27 35 36 
0.326416 0.168701 -0.677246 
24 35 35 
0.329346 0.168457 -0.67627 
22 33 33 
0.33252 0.168213 -0.675293 
21 29 30 
0.335938 0.168213 -0.675293 
20 28 29 
0.339355 0.168213 -0.675293 
21 29 30 
0.343506 0.168457 -0.67627 
21 29 30 
0.346924 0.168457 -0.67627 
21 29 30 
0.351074 0.168701 -0.677246 
21 29 30 
0.355713 0.169189 -0.679199 
21 29 30 
0.359619 0.169434 -0.680176 
21 29 30 
0.36377 0.169678 -0.681641 
21 29 30 
0.36792 0.169922 -0.682617 
21 29 30 
0.371338 0.169922 -0.682617 
21 29 30 
0.375 0.169922 -0.682617 
21 29 30 
0.37793 0.169678 -0.681641 
21 29 30 
0.381592 0.169678 -0.681641 
21 29 30 
0.384521 0.169434 -0.680176 
21 29 30 
0.388184 0.169434 -0.680176 
21 29 30 
0.391602 0.169434 -0.680176 
21 29 30 
0.395264 0.169434 -0.680176 
21 29 30 
0.398682 0.169434 -0.680176 
21 29 30 
0.402832 0.169678 -0.681641 
21 29 30 
0.406494 0.169678 -0.681641 
21 29 30 
0.409912 0.169678 -0.681641 
21 29 30 
0.414062 0.169922 -0.682617 
21 29 30 
0.417725 0.169922 -0.682617 
21 29 30 
0.421387 0.169922 -0.682617 
21 29 30 
0.424805 0.169922 -0.682617 
21 29 30 
0.428467 0.169922 -0.682617 
21 29 30 
0.431885 0.169922 -0.682617 
21 29 30 
0.435547 0.169922 -0.682617 
21 29 30 
0.438965 0.169922 -0.682617 
21 29 30 
0.442627 0.169922 -0.682617 
21 29 30 
0.446289 0.169922 -0.682617 
21 29 30 
0.449707 0.169922 -0.682617 
21 29 30 
0.453369 0.169922 -0.682617 
21 29 30 
0.456787 0.169922 -0.682617 
21 29 30 
0.460449 0.169922 -0.682617 
21 29 30 
0.463867 0.169922 -0.682617 
21 29 30 
0.467529 0.169922 -0.682617 
21 29 30 
0.471191 0.169922 -0.682617 
21 29 30 
0.475342 0.170166 -0.683594 
21 29 30 
0.479004 0.170166 -0.683594 
21 29 30 
0.482422 0.170166 -0.683594 
21 29 30 
0.486084 0.170166 -0.683594 
21 29 30 
0.489502 0.170166 -0.683594 
21 29 30 
0.493164 0.170166 -0.683594 
21 29 30 
0.496826 0.170166 -0.683594 
21 29 30 
0.5 0.170166 -0.683594 
21 29 30 
0.503906 0.170166 -0.683594 
21 29 30 
0.507324 0.170166 -0.683594 
21 29 30 
0.510742 0.170166 -0.683594 
21 29 30 
0.514648 0.170166 -0.683594 
21 29 30 
0.518066 0.170166 -0.683594 
21 29 30 
0.521484 0.170166 -0.683594 
21 29 30 
0.524902 0.170166 -0.683594 
21 29 30 
0.527832 0.169922 -0.682617 
21 29 30 
0.53125 0.169922 -0.682617 
21 29 30 
0.535156 0.169922 -0.682617 
21 29 30 
0.538574 0.169922 -0.682617 
21 29 30 
0.541992 0.169922 -0.682617 
21 29 30 
0.544922 0.169678 -0.681641 
21 29 30 
0.54834 0.169678 -0.681641 
21 29 30 
0.552246 0.169678 -0.681641 
21 29 30 
0.555664 0.169678 -0.681641 
21 29 30 
0.559082 0.169678 -0.681641 
21 29 30 
0.562012 0.169434 -0.680176 
21 29 30 
-0.366699 0.167114 -0.685547 
32 32 32 
-0.363525 0.167358 -0.686523 
62 51 55 
-0.360107 0.167358 -0.686523 
141 135 137 
-0.356445 0.167358 -0.686523 
159 154 152 
-0.352783 0.167358 -0.686523 
147 142 140 
-0.349365 0.167358 -0.686523 
148 140 139 
-0.345703 0.167358 -0.686523 
144 136 135 
-0.342041 0.167358 -0.686523 
151 146 142 
-0.338623 0.167358 -0.686523 
148 143 139 
-0.334961 0.167358 -0.686523 
153 148 146 
-0.331299 0.167358 -0.686523 
153 148 146 
-0.327881 0.167358 -0.686523 
143 140 137 
-0.324219 0.167358 -0.686523 
152 149 146 
-0.320557 0.167358 -0.686523 
150 147 144 
-0.317383 0.167603 -0.6875 
156 151 149 
-0.313965 0.167603 -0.6875 
152 144 143 
-0.310303 0.167603 -0.6875 
148 140 137 
-0.306641 0.167603 -0.6875 
156 151 147 
-0.303223 0.167603 -0.6875 
158 153 151 
-0.299561 0.167603 -0.6875 
156 152 153 
-0.295898 0.167603 -0.6875 
157 153 154 
-0.291992 0.167358 -0.686523 
150 145 141 
-0.28833 0.167358 -0.686523 
157 147 145 
-0.284912 0.167358 -0.686523 
157 154 151 
-0.28125 0.167358 -0.686523 
150 147 144 
-0.277588 0.167358 -0.686523 
144 139 137 
-0.27417 0.167358 -0.686523 
129 125 126 
-0.27002 0.167114 -0.685547 
157 149 148 
-0.266602 0.167114 -0.685547 
154 149 147 
-0.262939 0.167114 -0.685547 
148 143 141 
-0.259277 0.167114 -0.685547 
146 138 137 
-0.255859 0.167114 -0.685547 
149 144 142 
-0.252197 0.167114 -0.685547 
153 148 146 
-0.248657 0.167114 -0.685547 
150 147 144 
-0.245117 0.167114 -0.685547 
153 153 149 
-0.241577 0.167114 -0.685547 
150 150 146 
-0.237671 0.16687 -0.68457 
145 145 141 
-0.234131 0.16687 -0.68457 
152 149 146 
-0.230469 0.16687 -0.68457 
149 146 143 
-0.227295 0.167114 -0.685547 
150 147 144 
-0.223633 0.167114 -0.685547 
152 149 146 
-0.220093 0.167114 -0.685547 
155 152 149 
-0.216187 0.16687 -0.68457 
152 149 146 
-0.212646 0.16687 -0.68457 
154 154 150 
-0.209106 0.16687 -0.68457 
153 152 152 
-0.205566 0.16687 -0.68457 
149 145 146 
-0.201904 0.16687 -0.68457 
152 151 151 
-0.198364 0.16687 -0.68457 
146 147 143 
-0.194824 0.16687 -0.68457 
146 147 143 
-0.191284 0.16687 -0.68457 
144 144 140 
-0.187622 0.16687 -0.68457 
146 146 140 
-0.184082 0.16687 -0.68457 
150 150 146 
-0.180542 0.16687 -0.68457 
148 148 144 
-0.177002 0.16687 -0.68457 
147 147 143 
-0.17334 0.16687 -0.68457 
145 145 141 
-0.1698 0.16687 -0.68457 
148 148 144 
-0.166016 0.166626 -0.683594 
143 142 142 
-0.162476 0.166626 -0.683594 
144 144 140 
-0.158936 0.166626 -0.683594 
147 147 143 
-0.155273 0.166626 -0.683594 
140 140 136 
-0.151733 0.166626 -0.683594 
136 133 130 
-0.148193 0.166626 -0.683594 
138 135 132 
-0.144653 0.166626 -0.683594 
140 140 136 
-0.141113 0.166626 -0.683594 
125 125 121 
-0.137451 0.166626 -0.683594 
138 135 132 
-0.133911 0.166626 -0.683594 
134 134 130 
-0.130127 0.166382 -0.682617 
132 133 129 
-0.126587 0.166382 -0.682617 
132 133 129 
-0.123108 0.166382 -0.682617 
124 124 120 
-0.119507 0.166382 -0.682617 
129 126 123 
-0.115967 0.166382 -0.682617 
128 125 122 
-0.112427 0.166382 -0.682617 
124 121 118 
-0.109009 0.166626 -0.683594 
131 131 127 
-0.105469 0.166626 -0.683594 
133 133 133 
-0.101868 0.166626 -0.683594 
133 133 133 
-0.0984497 0.16687 -0.68457 
132 132 132 
-0.0949097 0.16687 -0.68457 
129 129 129 
-0.0913086 0.16687 -0.68457 
124 124 124 
-0.0877686 0.16687 -0.68457 
127 126 126 
-0.0841675 0.16687 -0.68457 
124 124 124 
-0.0806274 0.16687 -0.68457 
120 120 116 
-0.0770264 0.16687 -0.68457 
129 130 126 
-0.0734863 0.16687 -0.68457 
120 123 122 
-0.0698853 0.16687 -0.68457 
129 132 131 
-0.0663452 0.16687 -0.68457 
130 133 132 
-0.0627441 0.16687 -0.68457 
129 133 128 
-0.0592957 0.167114 -0.685547 
129 136 130 
-0.0557251 0.167114 -0.685547 
122 129 123 
-0.0521545 0.167114 -0.685547 
124 128 123 
-0.048584 0.167114 -0.685547 
125 132 124 
-0.0450134 0.167114 -0.685547 
125 132 124 
-0.0414429 0.167114 -0.685547 
122 130 119 
-0.0378113 0.16687 -0.68457 
128 136 125 
-0.0342407 0.16687 -0.68457 
131 138 132 
-0.0306702 0.16687 -0.68457 
131 134 133 
-0.0270996 0.16687 -0.68457 
124 127 126 
-0.0235291 0.16687 -0.68457 
129 133 128 
-0.019928 0.166626 -0.683594 
122 122 122 
-0.0163422 0.166382 -0.682617 
129 135 133 
-0.0127716 0.166138 -0.681641 
127 133 131 
-0.00919342 0.165649 -0.679199 
120 126 124 
-0.00563431 0.165161 -0.677246 
127 133 131 
-0.00209236 0.164429 -0.674316 
93 97 90 
0.00141907 0.16394 -0.672363 
77 56 39 
0.00490189 0.163208 -0.669434 
98 48 27 
0.00836945 0.16272 -0.66748 
89 42 20 
0.0118103 0.162231 -0.665527 
81 37 19 
0.0152588 0.161987 -0.664551 
99 49 28 
0.018692 0.161743 -0.663574 
100 48 28 
0.02211 0.161499 -0.662109 
101 49 29 
0.0255737 0.161499 -0.662109 
87 39 24 
0.0290222 0.161499 -0.662109 
84 39 26 
0.0324707 0.161499 -0.662109 
80 68 37 
0.0359192 0.161499 -0.662109 
134 110 67 
0.0393066 0.161255 -0.661133 
143 111 64 
0.0427551 0.161255 -0.661133 
139 105 56 
0.0462036 0.161255 -0.661133 
145 109 59 
0.0496521 0.161255 -0.661133 
145 109 61 
0.0530396 0.161011 -0.660156 
109 61 24 
0.056488 0.161011 -0.660156 
108 57 28 
0.059845 0.160767 -0.65918 
118 70 35 
0.0632324 0.160767 -0.65918 
112 64 29 
0.0667114 0.160767 -0.65918 
142 103 54 
0.0701294 0.160767 -0.65918 
137 98 49 
0.0735474 0.160767 -0.65918 
123 96 74 
0.0770264 0.160767 -0.65918 
55 76 95 
0.0804443 0.160767 -0.65918 
32 54 68 
0.0838623 0.160767 -0.65918 
64 89 82 
0.0873413 0.160767 -0.65918 
26 55 37 
0.0907593 0.160767 -0.65918 
13 57 32 
0.0941772 0.160767 -0.65918 
19 59 28 
0.0976562 0.160767 -0.65918 
27 62 33 
0.101074 0.160767 -0.65918 
120 54 30 
0.104492 0.160767 -0.65918 
140 77 38 
0.107971 0.160767 -0.65918 
117 42 23 
0.111389 0.160767 -0.65918 
97 44 29 
0.114807 0.160767 -0.65918 
111 59 78 
0.118286 0.160767 -0.65918 
105 62 83 
0.121521 0.160522 -0.658203 
145 140 152 
0.124939 0.160522 -0.658203 
135 147 151 
0.128418 0.160522 -0.658203 
132 148 158 
0.131836 0.160522 -0.658203 
137 150 161 
0.135254 0.160522 -0.658203 
108 122 128 
0.138916 0.160767 -0.65918 
91 105 111 
0.142334 0.160767 -0.65918 
78 83 88 
0.145996 0.161011 -0.660156 
43 54 63 
0.149414 0.161011 -0.660156 
52 62 67 
0.152832 0.161011 -0.660156 
12 63 37 
0.156494 0.161255 -0.661133 
66 110 97 
0.160034 0.161255 -0.661133 
24 60 42 
0.163696 0.161499 -0.662109 
15 65 42 
0.167114 0.161499 -0.662109 
9 62 38 
0.170898 0.161743 -0.663574 
10 64 35 
0.174561 0.161987 -0.664551 
9 63 34 
0.178589 0.162476 -0.666504 
9 63 34 
0.182617 0.162964 -0.668457 
15 64 35 
0.186646 0.163452 -0.67041 
26 67 41 
0.190674 0.16394 -0.672363 
124 135 131 
0.194824 0.164429 -0.674316 
139 147 146 
0.198853 0.164917 -0.67627 
141 147 147 
0.203003 0.165405 -0.678223 
138 144 144 
0.207153 0.165894 -0.680176 
138 144 144 
0.21106 0.166138 -0.681641 
139 145 145 
0.214966 0.166382 -0.682617 
136 139 140 
0.218506 0.166382 -0.682617 
136 139 138 
0.222412 0.166626 -0.683594 
140 148 145 
0.225952 0.166626 -0.683594 
142 148 148 
0.229492 0.166626 -0.683594 
148 154 154 
0.233032 0.166626 -0.683594 
149 155 157 
0.236572 0.166626 -0.683594 
143 149 151 
0.240234 0.166626 -0.683594 
147 153 155 
0.243408 0.166382 -0.682617 
138 144 146 
0.246948 0.166382 -0.682617 
137 137 141 
0.250488 0.166382 -0.682617 
139 138 140 
0.253906 0.166382 -0.682617 
145 151 151 
0.257568 0.166382 -0.682617 
140 143 144 
0.26123 0.166382 -0.682617 
151 154 155 
0.265137 0.166626 -0.683594 
148 151 152 
0.268555 0.166626 -0.683594 
147 150 151 
0.272217 0.166626 -0.683594 
147 153 153 
0.275879 0.166626 -0.683594 
148 151 152 
0.279297 0.166626 -0.683594 
138 141 142 
0.282959 0.166626 -0.683594 
142 145 144 
0.286377 0.166626 -0.683594 
143 146 145 
0.290039 0.166626 -0.683594 
149 152 153 
0.293701 0.166626 -0.683594 
146 146 148 
0.297119 0.166626 -0.683594 
153 153 155 
0.300781 0.166626 -0.683594 
151 154 155 
0.304199 0.166626 -0.683594 
147 150 151 
0.307861 0.166626 -0.683594 
147 147 149 
0.311523 0.166626 -0.683594 
153 153 157 
0.314941 0.166626 -0.683594 
144 144 148 
0.318115 0.166382 -0.682617 
140 140 144 
0.320557 0.165894 -0.680176 
57 53 58 
0.32373 0.165649 -0.679199 
28 36 37 
0.326416 0.165161 -0.677246 
25 36 36 
0.329346 0.164917 -0.67627 
23 34 34 
0.33252 0.164673 -0.675293 
18 29 29 
0.335938 0.164673 -0.675293 
20 28 29 
0.339355 0.164673 -0.675293 
21 29 30 
0.343018 0.164673 -0.675293 
21 29 30 
0.346924 0.164917 -0.67627 
21 29 30 
0.351074 0.165161 -0.677246 
21 29 30 
0.355225 0.165405 -0.678223 
21 29 30 
0.359619 0.165894 -0.680176 
21 29 30 
0.363281 0.165894 -0.680176 
21 29 30 
0.367432 0.166138 -0.681641 
21 29 30 
0.37085 0.166138 -0.681641 
21 29 30 
0.374512 0.166138 -0.681641 
21 29 30 
0.37793 0.166138 -0.681641 
21 29 30 
0.381104 0.165894 -0.680176 
21 29 30 
0.384521 0.165894 -0.680176 
21 29 30 
0.388184 0.165894 -0.680176 
21 29 30 
0.391602 0.165894 -0.680176 
21 29 30 
0.395264 0.165894 -0.680176 
21 29 30 
0.398682 0.165894 -0.680176 
21 29 30 
0.402344 0.165894 -0.680176 
21 29 30 
0.406494 0.166138 -0.681641 
21 29 30 
0.409912 0.166138 -0.681641 
21 29 30 
0.413574 0.166138 -0.681641 
21 29 30 
0.417725 0.166382 -0.682617 
21 29 30 
0.421387 0.166382 -0.682617 
21 29 30 
0.424805 0.166382 -0.682617 
21 29 30 
0.428467 0.166382 -0.682617 
21 29 30 
0.431885 0.166382 -0.682617 
21 29 30 
0.435547 0.166382 -0.682617 
21 29 30 
0.438965 0.166382 -0.682617 
21 29 30 
0.442627 0.166382 -0.682617 
21 29 30 
0.446289 0.166382 -0.682617 
21 29 30 
0.449707 0.166382 -0.682617 
21 29 30 
0.453369 0.166382 -0.682617 
21 29 30 
0.456787 0.166382 -0.682617 
21 29 30 
0.460449 0.166382 -0.682617 
21 29 30 
0.463867 0.166382 -0.682617 
21 29 30 
0.467529 0.166382 -0.682617 
21 29 30 
0.47168 0.166626 -0.683594 
21 29 30 
0.475342 0.166626 -0.683594 
21 29 30 
0.479004 0.166626 -0.683594 
21 29 30 
0.482422 0.166626 -0.683594 
21 29 30 
0.486084 0.166626 -0.683594 
21 29 30 
0.489502 0.166626 -0.683594 
21 29 30 
0.493164 0.166626 -0.683594 
21 29 30 
0.496826 0.166626 -0.683594 
21 29 30 
0.5 0.166626 -0.683594 
21 29 30 
0.503906 0.166626 -0.683594 
21 29 30 
0.507324 0.166626 -0.683594 
21 29 30 
0.510742 0.166626 -0.683594 
21 29 30 
0.514648 0.166626 -0.683594 
21 29 30 
0.518066 0.166626 -0.683594 
21 29 30 
0.520996 0.166382 -0.682617 
21 29 30 
0.524414 0.166382 -0.682617 
21 29 30 
0.527832 0.166382 -0.682617 
21 29 30 
0.53125 0.166382 -0.682617 
21 29 30 
0.535156 0.166382 -0.682617 
21 29 30 
0.538574 0.166382 -0.682617 
21 29 30 
0.541504 0.166138 -0.681641 
21 29 30 
0.544922 0.166138 -0.681641 
21 29 30 
0.54834 0.166138 -0.681641 
21 29 30 
0.552246 0.166138 -0.681641 
21 29 30 
0.555664 0.166138 -0.681641 
21 29 30 
0.559082 0.166138 -0.681641 
21 29 30 
0.5625 0.166138 -0.681641 
21 29 30 
-0.367188 0.163818 -0.686523 
31 32 28 
-0.363525 0.163818 -0.686523 
97 86 92 
-0.360107 0.163818 -0.686523 
149 145 146 
-0.356445 0.163818 -0.686523 
158 155 152 
-0.352783 0.163818 -0.686523 
145 142 139 
-0.349365 0.163818 -0.686523 
149 144 142 
-0.345703 0.163818 -0.686523 
147 144 141 
-0.342041 0.163818 -0.686523 
145 142 137 
-0.338623 0.163818 -0.686523 
141 138 133 
-0.334961 0.163818 -0.686523 
153 148 144 
-0.331299 0.163818 -0.686523 
154 149 147 
-0.327881 0.163818 -0.686523 
143 138 136 
-0.324219 0.163818 -0.686523 
147 142 140 
-0.320557 0.163818 -0.686523 
149 144 142 
-0.317383 0.164062 -0.6875 
155 150 148 
-0.313965 0.164062 -0.6875 
150 145 143 
-0.310303 0.164062 -0.6875 
151 146 142 
-0.306641 0.164062 -0.6875 
159 154 150 
-0.303223 0.164062 -0.6875 
156 151 147 
-0.299561 0.164062 -0.6875 
157 152 150 
-0.295898 0.164062 -0.6875 
150 145 143 
-0.29248 0.164062 -0.6875 
150 142 139 
-0.28833 0.163818 -0.686523 
155 147 144 
-0.284912 0.163818 -0.686523 
150 145 143 
-0.28125 0.163818 -0.686523 
148 140 139 
-0.277588 0.163818 -0.686523 
149 141 140 
-0.27417 0.163818 -0.686523 
130 121 124 
-0.27002 0.163574 -0.685547 
156 147 150 
-0.266602 0.163574 -0.685547 
154 148 150 
-0.262939 0.163574 -0.685547 
148 143 141 
-0.259277 0.163574 -0.685547 
148 143 141 
-0.255859 0.163574 -0.685547 
148 142 144 
-0.252197 0.163574 -0.685547 
154 148 150 
-0.248657 0.163574 -0.685547 
151 146 144 
-0.245117 0.163574 -0.685547 
148 145 142 
-0.241577 0.163574 -0.685547 
147 142 140 
-0.238037 0.163574 -0.685547 
146 143 140 
-0.234375 0.163574 -0.685547 
146 143 140 
-0.230835 0.163574 -0.685547 
154 149 147 
-0.227295 0.163574 -0.685547 
154 151 148 
-0.223389 0.16333 -0.68457 
146 143 140 
-0.219849 0.16333 -0.68457 
155 152 149 
-0.216187 0.16333 -0.68457 
156 152 153 
-0.212646 0.16333 -0.68457 
148 145 140 
-0.209106 0.16333 -0.68457 
153 150 147 
-0.205566 0.16333 -0.68457 
152 152 148 
-0.201904 0.16333 -0.68457 
151 151 147 
-0.198364 0.16333 -0.68457 
148 147 147 
-0.194824 0.16333 -0.68457 
151 151 151 
-0.191284 0.16333 -0.68457 
142 139 136 
-0.187622 0.16333 -0.68457 
142 139 134 
-0.184082 0.16333 -0.68457 
147 147 141 
-0.180542 0.16333 -0.68457 
145 142 139 
-0.177002 0.16333 -0.68457 
143 142 142 
-0.17334 0.16333 -0.68457 
145 145 145 
-0.1698 0.16333 -0.68457 
145 145 145 
-0.166016 0.163086 -0.683594 
141 140 140 
-0.162476 0.163086 -0.683594 
144 143 143 
-0.158936 0.163086 -0.683594 
144 143 143 
-0.155273 0.163086 -0.683594 
141 141 137 
-0.151733 0.163086 -0.683594 
133 133 129 
-0.148193 0.163086 -0.683594 
125 125 121 
-0.144653 0.163086 -0.683594 
124 124 120 
-0.141113 0.163086 -0.683594 
124 124 120 
-0.137451 0.163086 -0.683594 
125 125 121 
-0.133911 0.163086 -0.683594 
132 129 126 
-0.130127 0.162842 -0.682617 
129 126 121 
-0.126587 0.162842 -0.682617 
131 132 126 
-0.123108 0.162842 -0.682617 
129 129 123 
-0.119507 0.162842 -0.682617 
126 126 120 
-0.115967 0.162842 -0.682617 
124 121 116 
-0.112427 0.162842 -0.682617 
121 117 110 
-0.109009 0.163086 -0.683594 
125 121 114 
-0.105469 0.163086 -0.683594 
134 130 121 
-0.101868 0.163086 -0.683594 
134 130 119 
-0.0984497 0.16333 -0.68457 
133 129 118 
-0.0949097 0.16333 -0.68457 
131 130 115 
-0.0913086 0.16333 -0.68457 
124 126 110 
-0.0877686 0.16333 -0.68457 
129 131 115 
-0.0841675 0.16333 -0.68457 
126 129 106 
-0.0805054 0.163086 -0.683594 
124 124 100 
-0.0769653 0.163086 -0.683594 
126 125 97 
-0.0733643 0.163086 -0.683594 
122 122 91 
-0.0698242 0.163086 -0.683594 
123 123 88 
-0.0662231 0.163086 -0.683594 
123 125 82 
-0.0627441 0.16333 -0.68457 
121 123 78 
-0.0378113 0.16333 -0.68457 
110 119 67 
-0.0342407 0.16333 -0.68457 
89 90 77 
-0.0306244 0.163086 -0.683594 
126 130 125 
-0.0270691 0.163086 -0.683594 
124 128 123 
-0.0234985 0.163086 -0.683594 
131 135 130 
-0.019928 0.163086 -0.683594 
128 131 130 
-0.0163422 0.162842 -0.682617 
131 134 133 
-0.0127563 0.162354 -0.680176 
134 137 136 
-0.00919342 0.162109 -0.679199 
128 134 134 
-0.00562668 0.161377 -0.67627 
124 130 128 
-0.00209236 0.160889 -0.674316 
94 95 89 
0.00141716 0.160156 -0.671387 
79 55 39 
0.00490189 0.159668 -0.669434 
98 46 26 
0.00835419 0.159058 -0.666504 
91 41 20 
0.0118103 0.158813 -0.665527 
85 39 21 
0.0152359 0.158325 -0.663574 
97 45 23 
0.0186615 0.158081 -0.662109 
102 47 26 
0.0220795 0.157837 -0.661133 
103 49 25 
0.025528 0.157837 -0.661133 
92 40 18 
0.0289764 0.157837 -0.661133 
48 46 23 
0.0324097 0.157837 -0.661133 
63 54 35 
0.0358582 0.157837 -0.661133 
105 88 59 
0.0392456 0.157593 -0.660156 
142 110 63 
0.0426941 0.157593 -0.660156 
138 104 55 
0.0461426 0.157593 -0.660156 
147 108 59 
0.0495911 0.157593 -0.660156 
141 105 55 
0.052948 0.157349 -0.65918 
103 60 14 
0.0563965 0.157349 -0.65918 
103 45 18 
0.0597534 0.157104 -0.658203 
106 48 21 
0.0631714 0.157104 -0.658203 
118 55 30 
0.0665894 0.157104 -0.658203 
113 72 37 
0.0700073 0.157104 -0.658203 
138 104 55 
0.0734863 0.157104 -0.658203 
129 99 67 
0.0769043 0.157104 -0.658203 
55 70 98 
0.0803223 0.157104 -0.658203 
67 68 97 
0.0837402 0.157104 -0.658203 
104 63 85 
0.0872192 0.157104 -0.658203 
96 56 73 
0.0906372 0.157104 -0.658203 
31 53 33 
0.0940552 0.157104 -0.658203 
15 57 26 
0.0976562 0.157349 -0.65918 
20 60 31 
0.101074 0.157349 -0.65918 
72 55 30 
0.104492 0.157349 -0.65918 
77 58 31 
0.107788 0.157104 -0.658203 
72 50 26 
0.111206 0.157104 -0.658203 
67 49 27 
0.114685 0.157104 -0.658203 
59 59 53 
0.11792 0.15686 -0.657227 
46 59 58 
0.121338 0.15686 -0.657227 
133 149 159 
0.124756 0.15686 -0.657227 
136 147 156 
0.128174 0.15686 -0.657227 
123 136 145 
0.131592 0.15686 -0.657227 
139 152 163 
0.13501 0.15686 -0.657227 
134 147 158 
0.138428 0.15686 -0.657227 
133 146 157 
0.14209 0.157104 -0.658203 
76 74 88 
0.145752 0.157349 -0.65918 
49 47 77 
0.14917 0.157349 -0.65918 
60 57 78 
0.152832 0.157593 -0.660156 
13 64 38 
0.15625 0.157593 -0.660156 
80 127 111 
0.160034 0.157837 -0.661133 
26 64 45 
0.163452 0.157837 -0.661133 
15 65 42 
0.167114 0.158081 -0.662109 
9 62 38 
0.170898 0.158325 -0.663574 
9 63 36 
0.174561 0.158569 -0.664551 
7 61 34 
0.178345 0.158813 -0.665527 
9 63 34 
0.182373 0.159302 -0.66748 
10 64 35 
0.186401 0.159668 -0.669434 
24 70 44 
0.190674 0.1604 -0.672363 
120 128 125 
0.194824 0.160889 -0.674316 
136 139 140 
0.198853 0.161377 -0.67627 
138 144 144 
0.203003 0.161865 -0.678223 
131 134 135 
0.207153 0.162354 -0.680176 
141 149 148 
0.21106 0.162598 -0.681641 
134 137 138 
0.214966 0.162842 -0.682617 
137 140 141 
0.21875 0.163086 -0.683594 
140 143 144 
0.222412 0.163086 -0.683594 
140 148 147 
0.225952 0.163086 -0.683594 
139 147 146 
0.229492 0.163086 -0.683594 
145 151 151 
0.233032 0.163086 -0.683594 
145 151 151 
0.236572 0.163086 -0.683594 
145 151 151 
0.240234 0.163086 -0.683594 
148 154 154 
0.243774 0.163086 -0.683594 
147 155 156 
0.247314 0.163086 -0.683594 
139 147 148 
0.250488 0.162842 -0.682617 
139 139 141 
0.253906 0.162842 -0.682617 
150 153 156 
0.257568 0.162842 -0.682617 
149 152 153 
0.26123 0.162842 -0.682617 
148 151 152 
0.265137 0.163086 -0.683594 
141 144 145 
0.268555 0.163086 -0.683594 
148 151 152 
0.272217 0.163086 -0.683594 
140 146 146 
0.275879 0.163086 -0.683594 
150 153 154 
0.279297 0.163086 -0.683594 
141 140 144 
0.282959 0.163086 -0.683594 
147 147 147 
0.286377 0.163086 -0.683594 
144 147 146 
0.290039 0.163086 -0.683594 
147 150 151 
0.293701 0.163086 -0.683594 
145 148 149 
0.297119 0.163086 -0.683594 
150 150 152 
0.300781 0.163086 -0.683594 
153 153 155 
0.304199 0.163086 -0.683594 
146 146 148 
0.307861 0.163086 -0.683594 
149 152 153 
0.311523 0.163086 -0.683594 
142 142 144 
0.314941 0.163086 -0.683594 
149 149 151 
0.318115 0.162842 -0.682617 
132 131 133 
0.321045 0.162598 -0.681641 
57 53 56 
0.32373 0.162109 -0.679199 
30 35 40 
0.326904 0.161865 -0.678223 
27 38 38 
0.329346 0.161377 -0.67627 
23 34 34 
0.33252 0.161133 -0.675293 
17 28 28 
0.335938 0.161133 -0.675293 
21 29 28 
0.339355 0.161133 -0.675293 
21 29 28 
0.343018 0.161133 -0.675293 
21 29 28 
0.346924 0.161377 -0.67627 
21 29 28 
0.351074 0.161621 -0.677246 
21 29 28 
0.355225 0.161865 -0.678223 
21 29 28 
0.359131 0.162109 -0.679199 
21 29 28 
0.363281 0.162354 -0.680176 
21 29 30 
0.367432 0.162598 -0.681641 
21 29 30 
0.37085 0.162598 -0.681641 
21 29 30 
0.374512 0.162598 -0.681641 
21 29 30 
0.377441 0.162354 -0.680176 
21 29 30 
0.381104 0.162354 -0.680176 
21 29 30 
0.384521 0.162354 -0.680176 
21 29 30 
0.388184 0.162354 -0.680176 
21 29 30 
0.391602 0.162354 -0.680176 
21 29 30 
0.395264 0.162354 -0.680176 
21 29 30 
0.398682 0.162354 -0.680176 
21 29 30 
0.402344 0.162354 -0.680176 
21 29 30 
0.405762 0.162354 -0.680176 
21 29 30 
0.409912 0.162598 -0.681641 
21 29 30 
0.413574 0.162598 -0.681641 
21 29 30 
0.416992 0.162598 -0.681641 
21 29 30 
0.421387 0.162842 -0.682617 
21 29 30 
0.424805 0.162842 -0.682617 
21 29 30 
0.428467 0.162842 -0.682617 
21 29 30 
0.431885 0.162842 -0.682617 
21 29 30 
0.435547 0.162842 -0.682617 
21 29 30 
0.438965 0.162842 -0.682617 
21 29 30 
0.442627 0.162842 -0.682617 
21 29 30 
0.446289 0.162842 -0.682617 
21 29 30 
0.449707 0.162842 -0.682617 
21 29 30 
0.453369 0.162842 -0.682617 
21 29 30 
0.456787 0.162842 -0.682617 
21 29 30 
0.460449 0.162842 -0.682617 
21 29 30 
0.463867 0.162842 -0.682617 
21 29 30 
0.467529 0.162842 -0.682617 
21 29 30 
0.47168 0.163086 -0.683594 
21 29 30 
0.475342 0.163086 -0.683594 
21 29 30 
0.479004 0.163086 -0.683594 
21 29 30 
0.482422 0.163086 -0.683594 
21 29 30 
0.486084 0.163086 -0.683594 
21 29 30 
0.489502 0.163086 -0.683594 
21 29 30 
0.493164 0.163086 -0.683594 
21 29 30 
0.496826 0.163086 -0.683594 
21 29 30 
0.5 0.163086 -0.683594 
21 29 30 
0.503906 0.163086 -0.683594 
21 29 30 
0.507324 0.163086 -0.683594 
21 29 30 
0.510742 0.163086 -0.683594 
21 29 30 
0.513672 0.162842 -0.682617 
21 29 30 
0.51709 0.162842 -0.682617 
21 29 30 
0.520996 0.162842 -0.682617 
21 29 30 
0.524414 0.162842 -0.682617 
21 29 30 
0.527832 0.162842 -0.682617 
21 29 30 
0.53125 0.162842 -0.682617 
21 29 30 
0.535156 0.162842 -0.682617 
21 29 30 
0.538574 0.162842 -0.682617 
21 29 30 
0.541504 0.162598 -0.681641 
21 29 30 
0.544922 0.162598 -0.681641 
21 29 30 
0.54834 0.162598 -0.681641 
21 29 30 
0.552246 0.162598 -0.681641 
21 29 30 
0.555664 0.162598 -0.681641 
21 29 30 
0.559082 0.162598 -0.681641 
21 29 30 
0.5625 0.162598 -0.681641 
21 29 30 
-0.367188 0.160278 -0.686523 
29 33 28 
-0.363525 0.160278 -0.686523 
96 85 91 
-0.360107 0.160278 -0.686523 
153 149 150 
-0.356445 0.160278 -0.686523 
157 154 151 
-0.352783 0.160278 -0.686523 
146 143 140 
-0.349365 0.160278 -0.686523 
148 145 142 
-0.345703 0.160278 -0.686523 
138 135 130 
-0.342041 0.160278 -0.686523 
150 150 144 
-0.338623 0.160278 -0.686523 
142 143 139 
-0.334961 0.160278 -0.686523 
154 151 146 
-0.331299 0.160278 -0.686523 
155 150 146 
-0.327881 0.160278 -0.686523 
151 146 142 
-0.324219 0.160278 -0.686523 
155 150 148 
-0.320557 0.160278 -0.686523 
155 150 148 
-0.317139 0.160278 -0.686523 
159 151 148 
-0.313965 0.1604 -0.6875 
157 149 146 
-0.310303 0.1604 -0.6875 
155 150 146 
-0.306641 0.1604 -0.6875 
157 149 146 
-0.303223 0.1604 -0.6875 
153 145 142 
-0.299561 0.1604 -0.6875 
148 143 139 
-0.295898 0.1604 -0.6875 
149 144 142 
-0.29248 0.1604 -0.6875 
156 152 153 
-0.28833 0.160278 -0.686523 
153 149 150 
-0.284912 0.160278 -0.686523 
152 149 146 
-0.28125 0.160278 -0.686523 
155 150 148 
-0.277588 0.160278 -0.686523 
147 142 140 
-0.27417 0.160278 -0.686523 
125 117 116 
-0.27002 0.160034 -0.685547 
153 142 146 
-0.266602 0.160034 -0.685547 
155 147 146 
-0.262939 0.160034 -0.685547 
154 149 147 
-0.259277 0.160034 -0.685547 
153 148 146 
-0.255859 0.160034 -0.685547 
153 148 146 
-0.252197 0.160034 -0.685547 
149 146 143 
-0.248657 0.160034 -0.685547 
142 139 136 
-0.245117 0.160034 -0.685547 
141 138 135 
-0.241577 0.160034 -0.685547 
145 142 139 
-0.238037 0.160034 -0.685547 
147 144 141 
-0.234375 0.160034 -0.685547 
149 146 143 
-0.230835 0.160034 -0.685547 
152 149 146 
-0.227295 0.160034 -0.685547 
150 147 144 
-0.223633 0.160034 -0.685547 
146 143 140 
-0.219849 0.15979 -0.68457 
155 152 149 
-0.216187 0.15979 -0.68457 
154 151 148 
-0.212646 0.15979 -0.68457 
144 145 141 
-0.209106 0.15979 -0.68457 
146 143 138 
-0.205566 0.15979 -0.68457 
154 149 145 
-0.201904 0.15979 -0.68457 
152 152 146 
-0.198364 0.15979 -0.68457 
141 138 135 
-0.19458 0.159546 -0.683594 
146 146 142 
-0.191284 0.15979 -0.68457 
137 132 130 
-0.187622 0.15979 -0.68457 
146 143 138 
-0.184082 0.15979 -0.68457 
144 144 140 
-0.180542 0.15979 -0.68457 
145 145 141 
-0.177002 0.15979 -0.68457 
139 139 133 
-0.17334 0.15979 -0.68457 
148 146 134 
-0.1698 0.15979 -0.68457 
143 140 126 
-0.166016 0.159546 -0.683594 
144 133 110 
-0.162476 0.159546 -0.683594 
141 129 102 
-0.158936 0.159546 -0.683594 
150 135 105 
-0.155273 0.159546 -0.683594 
146 131 94 
-0.151733 0.159546 -0.683594 
139 133 118 
-0.0487061 0.139893 -0.599121 
108 113 51 
-0.0455933 0.139893 -0.599121 
104 114 48 
-0.0341797 0.159546 -0.683594 
46 44 36 
-0.0306244 0.159546 -0.683594 
116 120 115 
-0.0270691 0.159546 -0.683594 
119 123 118 
-0.0234985 0.159546 -0.683594 
130 134 129 
-0.0198975 0.159302 -0.682617 
126 130 125 
-0.0163269 0.159058 -0.681641 
131 134 133 
-0.0127563 0.158813 -0.680176 
135 138 137 
-0.00917816 0.158325 -0.678223 
132 138 136 
-0.00562668 0.157837 -0.67627 
129 135 133 
-0.00208855 0.157227 -0.67334 
108 109 105 
0.00141716 0.156738 -0.671387 
78 54 38 
0.00489426 0.156006 -0.668457 
101 46 27 
0.00835419 0.155518 -0.666504 
93 41 21 
0.011795 0.155029 -0.664551 
88 40 21 
0.0152359 0.154785 -0.663574 
96 44 22 
0.0186615 0.154541 -0.662109 
101 50 25 
0.0220795 0.154419 -0.661133 
101 47 23 
0.025528 0.154419 -0.661133 
96 42 18 
0.0289307 0.154175 -0.660156 
96 45 45 
0.0323792 0.154175 -0.660156 
110 47 51 
0.0358276 0.154175 -0.660156 
142 100 68 
0.0392456 0.154175 -0.660156 
145 110 64 
0.0426941 0.154175 -0.660156 
140 104 52 
0.0460815 0.153931 -0.65918 
147 108 57 
0.04953 0.153931 -0.65918 
142 106 56 
0.052887 0.153687 -0.658203 
99 53 8 
0.0563049 0.153687 -0.658203 
106 45 19 
0.0597534 0.153687 -0.658203 
106 49 19 
0.0631714 0.153687 -0.658203 
122 54 28 
0.0665894 0.153687 -0.658203 
101 55 24 
0.0700073 0.153687 -0.658203 
109 61 28 
0.0734863 0.153687 -0.658203 
125 92 52 
0.0769043 0.153687 -0.658203 
98 58 87 
0.0803223 0.153687 -0.658203 
114 62 95 
0.0837402 0.153687 -0.658203 
122 59 91 
0.0872192 0.153687 -0.658203 
121 58 90 
0.0906372 0.153687 -0.658203 
115 57 85 
0.0940552 0.153687 -0.658203 
46 51 37 
0.0974731 0.153687 -0.658203 
16 55 29 
0.100952 0.153687 -0.658203 
20 55 28 
0.10437 0.153687 -0.658203 
24 57 31 
0.107788 0.153687 -0.658203 
29 59 32 
0.111084 0.153442 -0.657227 
34 57 34 
0.114502 0.153442 -0.657227 
129 151 154 
0.117737 0.153198 -0.65625 
130 148 155 
0.121155 0.153198 -0.65625 
130 146 154 
0.124573 0.153198 -0.65625 
97 111 113 
0.127808 0.152954 -0.655273 
132 150 159 
0.131348 0.153198 -0.65625 
135 151 159 
0.134766 0.153198 -0.65625 
129 142 151 
0.138428 0.153442 -0.657227 
93 107 111 
0.141846 0.153442 -0.657227 
90 86 91 
0.145508 0.153687 -0.658203 
81 48 81 
0.14917 0.153931 -0.65918 
86 54 80 
0.152588 0.153931 -0.65918 
15 61 37 
0.15625 0.154175 -0.660156 
88 131 113 
0.15979 0.154175 -0.660156 
20 60 41 
0.163452 0.154419 -0.661133 
13 64 38 
0.16687 0.154419 -0.661133 
9 63 36 
0.170654 0.154541 -0.662109 
9 63 36 
0.174316 0.154785 -0.663574 
9 63 36 
0.178345 0.155273 -0.665527 
7 61 34 
0.182007 0.155518 -0.666504 
10 64 37 
0.186401 0.15625 -0.669434 
22 68 44 
0.19043 0.156738 -0.671387 
126 141 136 
0.194824 0.157349 -0.674316 
133 141 140 
0.198853 0.157837 -0.67627 
130 133 134 
0.203003 0.158325 -0.678223 
133 133 135 
0.207153 0.158813 -0.680176 
141 149 148 
0.21106 0.159058 -0.681641 
134 140 140 
0.214966 0.159302 -0.682617 
143 149 149 
0.21875 0.159546 -0.683594 
135 141 141 
0.222412 0.159546 -0.683594 
144 152 151 
0.225952 0.159546 -0.683594 
141 149 148 
0.229858 0.15979 -0.68457 
135 143 142 
0.233398 0.15979 -0.68457 
145 153 152 
0.236572 0.159546 -0.683594 
146 152 152 
0.240234 0.159546 -0.683594 
148 154 154 
0.243774 0.159546 -0.683594 
148 156 157 
0.247314 0.159546 -0.683594 
141 149 150 
0.250732 0.159546 -0.683594 
145 151 153 
0.253906 0.159302 -0.682617 
151 154 157 
0.257568 0.159302 -0.682617 
151 154 157 
0.26123 0.159302 -0.682617 
138 141 142 
0.265137 0.159546 -0.683594 
141 144 145 
0.268555 0.159546 -0.683594 
137 140 141 
0.272217 0.159546 -0.683594 
135 138 139 
0.275879 0.159546 -0.683594 
150 153 154 
0.279297 0.159546 -0.683594 
147 147 151 
0.282959 0.159546 -0.683594 
139 138 138 
0.286377 0.159546 -0.683594 
140 140 140 
0.290039 0.159546 -0.683594 
146 146 146 
0.293701 0.159546 -0.683594 
143 146 145 
0.297119 0.159546 -0.683594 
143 146 145 
0.300781 0.159546 -0.683594 
149 152 153 
0.304199 0.159546 -0.683594 
148 151 152 
0.307861 0.159546 -0.683594 
150 153 154 
0.311523 0.159546 -0.683594 
148 151 152 
0.314941 0.159546 -0.683594 
143 143 145 
0.318115 0.159302 -0.682617 
132 128 131 
0.321045 0.159058 -0.681641 
75 69 71 
0.324219 0.158813 -0.680176 
32 37 42 
0.326904 0.158325 -0.678223 
27 37 40 
0.329834 0.158081 -0.677246 
23 33 36 
0.333008 0.157837 -0.67627 
17 28 28 
0.335938 0.157593 -0.675293 
20 28 27 
0.339355 0.157593 -0.675293 
19 27 26 
0.343018 0.157593 -0.675293 
19 27 26 
0.346924 0.157837 -0.67627 
19 27 26 
0.351074 0.158081 -0.677246 
19 27 26 
0.355225 0.158325 -0.678223 
19 27 26 
0.359131 0.158569 -0.679199 
19 27 26 
0.363281 0.158813 -0.680176 
19 27 26 
0.366699 0.158813 -0.680176 
19 27 26 
0.370361 0.158813 -0.680176 
19 27 26 
0.374023 0.158813 -0.680176 
19 27 26 
0.377441 0.158813 -0.680176 
19 27 26 
0.381104 0.158813 -0.680176 
19 27 26 
0.384521 0.158813 -0.680176 
19 27 26 
0.388184 0.158813 -0.680176 
19 27 26 
0.391602 0.158813 -0.680176 
19 27 26 
0.395264 0.158813 -0.680176 
19 27 26 
0.398682 0.158813 -0.680176 
19 27 26 
0.402344 0.158813 -0.680176 
19 27 26 
0.405762 0.158813 -0.680176 
19 27 26 
0.409424 0.158813 -0.680176 
19 27 26 
0.413574 0.159058 -0.681641 
19 27 26 
0.416992 0.159058 -0.681641 
19 27 26 
0.420654 0.159058 -0.681641 
19 27 26 
0.424805 0.159302 -0.682617 
19 27 26 
0.428467 0.159302 -0.682617 
19 27 26 
0.431885 0.159302 -0.682617 
19 27 26 
0.435547 0.159302 -0.682617 
19 27 26 
0.438965 0.159302 -0.682617 
19 27 26 
0.442627 0.159302 -0.682617 
19 27 26 
0.446777 0.159546 -0.683594 
19 27 26 
0.450439 0.159546 -0.683594 
19 27 26 
0.453369 0.159302 -0.682617 
19 27 26 
0.456787 0.159302 -0.682617 
19 27 26 
0.460449 0.159302 -0.682617 
19 27 26 
0.463867 0.159302 -0.682617 
19 27 26 
0.467529 0.159302 -0.682617 
19 27 26 
0.47168 0.159546 -0.683594 
19 27 26 
0.475342 0.159546 -0.683594 
19 27 26 
0.479004 0.159546 -0.683594 
19 27 26 
0.482422 0.159546 -0.683594 
19 27 26 
0.486084 0.159546 -0.683594 
19 27 26 
0.489502 0.159546 -0.683594 
19 27 26 
0.493164 0.159546 -0.683594 
19 27 26 
0.496826 0.159546 -0.683594 
19 27 26 
0.5 0.159546 -0.683594 
19 27 26 
0.503906 0.159546 -0.683594 
19 27 26 
0.506348 0.159302 -0.682617 
19 27 26 
0.510254 0.159302 -0.682617 
19 27 26 
0.513672 0.159302 -0.682617 
19 27 26 
0.51709 0.159302 -0.682617 
19 27 26 
0.520996 0.159302 -0.682617 
19 27 26 
0.524414 0.159302 -0.682617 
19 27 26 
0.527832 0.159302 -0.682617 
19 27 26 
0.530762 0.159058 -0.681641 
19 27 26 
0.53418 0.159058 -0.681641 
19 27 26 
0.537598 0.159058 -0.681641 
19 27 26 
0.541504 0.159058 -0.681641 
19 27 26 
0.544922 0.159058 -0.681641 
19 27 26 
0.54834 0.159058 -0.681641 
19 27 26 
0.552246 0.159058 -0.681641 
19 27 26 
